ply
format ascii 1.0
comment PCL generated
element vertex 1498
property float x
property float y
property float z
element camera 0
property float view_px
property float view_py
property float view_pz
property float x_axisx
property float x_axisy
property float x_axisz
property float y_axisx
property float y_axisy
property float y_axisz
property float z_axisx
property float z_axisy
property float z_axisz
property float focal
property float scalex
property float scaley
property float centerx
property float centery
property int viewportx
property int viewporty
property float k1
property float k2
end_header
0.12782501 0.00238279 0.19752
0.128912 0.0046330499 0.207174
0.0570684 -0.00094033702 0.318205
0.060039401 -0.0143072 0.31305099
0.063411102 0.000259327 0.31854299
0.053602599 -0.031971 0.30615801
0.0570242 -0.046892401 0.29766899
0.058337301 -0.030422401 0.30634701
0.063049696 -0.0289659 0.30657801
0.0617413 -0.061457898 0.28796801
0.055661999 -0.062252998 0.28810301
0.051192399 -0.066738099 0.28731999
0.0527003 -0.076582402 0.27675599
0.049181301 -0.101237 0.248283
0.057553299 -0.093594499 0.25898701
0.051513001 -0.090498798 0.262757
0.047090799 -0.0917022 0.265163
0.0489012 -0.109472 0.221071
0.044614799 -0.113667 0.211097
0.049383499 -0.109151 0.210265
0.0500689 -0.107329 0.202039
0.0534865 -0.109863 0.206645
0.078030802 0.135621 0.125466
0.0790217 0.142287 0.133591
0.0117958 0.156498 0.109927
0.0116051 0.159273 0.116647
0.021144699 0.059875902 0.34498399
0.0280996 0.061742399 0.34360799
0.021694301 0.068469003 0.34884101
0.035032701 0.063997298 0.342666
0.041937001 0.067357197 0.34177899
0.035278302 0.0722837 0.34614199
0.0483458 0.071252301 0.34002599
0.048137002 0.078826196 0.34248
0.071516201 0.093298599 0.322961
0.066716701 0.094942801 0.32692
0.0671506 0.088156 0.328049
0.075476497 0.098007299 0.316964
0.073896103 0.103219 0.315101
0.104488 0.116998 0.17298301
0.10379 0.124606 0.17814299
0.114919 0.082175702 0.20978899
0.113761 0.089708999 0.212579
0.116928 0.072111897 0.205303
0.116806 0.077863701 0.21775199
0.116626 0.081155702 0.230923
0.119117 0.072758801 0.221834
0.116699 0.082135297 0.243035
0.11459 0.0870618 0.24281
0.112671 0.089981899 0.25611001
0.108334 0.0961373 0.27165601
0.106429 0.100192 0.27309901
0.101544 0.099396601 0.28777599
0.112789 0.086770602 0.26882899
0.110304 0.091664203 0.270262
0.106905 0.090577602 0.284677
0.089075699 0.085585803 0.31233001
0.096555799 0.087455302 0.30460599
0.096011497 0.093233898 0.30118501
0.105695 0.082594201 0.297126
0.101889 0.086355001 0.299153
0.095941499 0.0777013 0.31083
0.0083372397 0.0104924 0.34263599
0.0074592801 0.0217539 0.34177899
0.015089 0.0232984 0.33937401
0.0244896 0.0154951 0.33671099
0.022772299 0.0254273 0.33684501
0.029975699 0.028647 0.33431801
0.036553401 0.031725202 0.33291599
0.037666399 0.022669001 0.33090901
0.082487203 0.077258296 0.320952
0.083333798 0.069196202 0.32241601
0.072488099 0.042675901 0.328309
0.0772072 0.052428398 0.32778999
0.083601803 0.046218801 0.32542101
0.083541498 0.059161201 0.324375
0.0895238 0.067417197 0.31937501
0.0446891 0.0167662 0.32669199
0.051634699 0.0092011504 0.32211
0.052872401 0.021907501 0.326619
0.061661098 0.025937 0.32696399
0.076854602 0.029892299 0.32557601
0.069662601 0.0286492 0.32652801
0.067017697 0.0139918 0.322813
0.0122989 0.133453 0.065616697
0.0122446 0.138978 0.076169103
0.0128289 0.12820099 0.053982101
0.0536904 0.122599 0.078156099
0.065353103 0.115014 0.076002598
0.053399801 0.118262 0.067939103
0.065798998 0.109498 0.0572538
0.053879801 0.114899 0.0566913
0.0764158 0.110199 0.081891797
0.072577097 0.109066 0.069099598
0.085997701 0.094202101 0.059966501
0.0767783 0.10227 0.0579818
0.118023 0.059224799 0.183685
0.114976 0.071344703 0.184461
0.117368 0.065792799 0.193351
0.119767 0.060831599 0.200083
0.113093 0.0772883 0.173392
0.114454 0.070368297 0.163458
0.110391 0.0829961 0.158923
0.107343 0.088397898 0.144062
0.109594 0.081728399 0.13616601
0.105491 0.091627903 0.130088
0.105407 0.090310201 0.118974
0.113259 0.068727799 0.14063101
0.111076 0.074185103 0.127832
0.111234 0.065679297 0.118735
0.108608 0.079314001 0.117278
0.106122 0.075634398 0.098750301
0.101927 0.0889505 0.101662
0.105865 0.084224299 0.108292
0.0976431 0.093525603 0.096163601
0.098489098 0.086189903 0.0837861
0.0933045 0.095882498 0.088150002
0.085355401 0.104127 0.086445399
0.090150997 0.0954151 0.075360797
0.108303 0.056371 0.083114997
0.104883 0.067939997 0.079877302
0.106938 0.0664334 0.090250902
0.109273 0.061793402 0.100112
0.10177 0.0754904 0.075630598
0.098506302 0.080474302 0.069712497
0.093704604 0.086169802 0.0641606
0.110026 0.045984101 0.075964198
0.111462 0.041742601 0.086673804
0.113306 0.0303379 0.089270003
0.113797 0.0203392 0.088822797
0.113371 0.0101079 0.102587
0.11392 0.0106991 0.085135102
0.114037 -0.00073998899 0.081924103
0.113368 -0.024344301 0.078695796
0.11428 -0.0121928 0.079330601
0.112914 -0.0114196 0.096634299
0.10833 -0.0535677 0.0778834
0.111402 -0.038128801 0.079597302
0.109927 -0.034934599 0.0961693
0.103503 -0.066345699 0.0885996
0.101977 -0.061606001 0.105859
0.099234402 -0.076742001 0.094399303
0.094513297 -0.087059401 0.095584102
0.088708401 -0.097646698 0.091827899
0.080010302 -0.110142 0.086372197
0.087370299 -0.103711 0.078425698
0.065225199 -0.124852 0.0730353
0.068566501 -0.121122 0.084014602
0.054440401 -0.130652 0.083913401
0.038571399 -0.137615 0.083405398
0.0227524 -0.14194 0.080269001
0.033107001 -0.139534 0.071836002
0.121748 0.0321084 0.183211
0.121458 -0.0013979001 0.17661899
0.117341 -0.00358598 0.166812
0.105377 -0.053971101 0.149388
0.104304 -0.0444065 0.146222
0.109685 -0.043604098 0.15188
0.115911 -0.042829499 0.159027
0.095232703 -0.076183803 0.15359899
0.093621902 -0.0632466 0.14766601
0.100706 -0.063885003 0.150158
0.108605 -0.065282501 0.153814
0.12811001 0.0258932 0.221807
0.128618 0.017637501 0.21807
0.129262 -0.0050377399 0.211559
0.12917 0.0071228598 0.215738
0.12888101 0.0094347997 0.22382601
0.123633 0.051281899 0.21179201
0.12526099 0.046000499 0.21738
0.125267 0.052312601 0.22562701
0.12659 0.041485298 0.225421
0.127627 0.037396099 0.235671
0.127701 0.032335099 0.228103
0.128374 0.0229981 0.23126
0.12874199 -0.00085786899 0.228717
0.12872 0.0123709 0.23187099
0.128821 0.0154495 0.239871
0.123313 0.063364103 0.22912601
0.125183 0.0581396 0.233309
0.125168 0.060364898 0.241989
0.126426 0.052572001 0.240153
0.12680399 0.049122501 0.248026
0.127545 0.0424884 0.242617
0.12843101 0.031403199 0.245775
0.12945101 0.00487667 0.24506301
0.129025 0.018903701 0.246856
0.128849 0.021748001 0.25307199
0.12177 0.071869701 0.245635
0.121707 0.069964103 0.25754201
0.123757 0.065434001 0.248469
0.125503 0.056951001 0.249901
0.12625 0.0490162 0.25575101
0.124823 0.049799301 0.262712
0.126821 0.038750701 0.25960401
0.128223 0.0093794502 0.25818199
0.128024 0.0246049 0.25880599
0.12628999 0.027206101 0.26466
0.118027 0.0653501 0.27999899
0.121894 0.058181901 0.269465
0.12046 0.067761503 0.26861301
0.118956 0.075831801 0.26443899
0.12298 0.045644499 0.27001601
0.124202 0.0136962 0.269943
0.123824 0.0309336 0.27092001
0.120746 0.0383652 0.279015
0.113884 0.072263204 0.28914499
0.115309 0.061364699 0.29138801
0.110121 0.055599701 0.30242699
0.117054 0.047743499 0.28982401
0.118233 0.032607298 0.287774
0.112435 0.0269695 0.29721501
0.117054 0.016416401 0.28741801
0.121626 0.0622705 0.215675
0.121214 0.068053298 0.224953
0.121234 0.071762599 0.23501401
0.11923 0.077484503 0.244148
0.117564 0.080217503 0.25546399
0.113048 0.080898203 0.28111801
0.11562 0.081846401 0.268004
0.103228 0.071714103 0.30741501
0.109418 0.077814803 0.294994
0.096317299 0.067408703 0.31564501
0.101993 0.060120199 0.312323
0.0062678298 -0.0112941 0.34175399
0.0087634996 -0.00029950601 0.34269601
0.017255399 0.00193614 0.33945501
0.0258865 -0.0055700699 0.33365801
0.0256062 0.0052952599 0.33596301
0.0327591 0.00930613 0.33186799
0.0386355 0.0021686901 0.32487801
0.038578399 0.0130637 0.32846999
0.083122902 0.017060401 0.32144201
0.083517902 0.0321103 0.324022
0.091675803 0.0380073 0.31964701
0.102458 0.032418299 0.30957699
0.101462 0.046659 0.31233001
0.0093951402 -0.033612199 0.33277401
0.017976301 -0.0239303 0.33274299
0.0092336899 -0.022174999 0.337542
0.032697301 -0.0136009 0.32599199
0.025935501 -0.017313899 0.33034801
0.025121 -0.029964801 0.326399
0.038174801 -0.023489401 0.31706101
0.038396601 -0.0098923203 0.32132199
0.043569501 -0.0067285001 0.31826401
0.050325599 -0.00346591 0.31748399
0.048832901 -0.018232901 0.31210101
0.068897396 0.00028176099 0.31852999
0.070620902 -0.0130022 0.31338999
0.075394303 -0.00244224 0.31713599
0.082702003 -0.0095773796 0.312794
0.082504399 0.00374372 0.31805599
0.091540501 0.0091712903 0.31434599
0.102608 0.0183415 0.30674401
0.102093 0.0047689499 0.30309999
0.0098809302 -0.055382699 0.32256201
0.017984601 -0.047134802 0.32360601
0.0096828099 -0.044733301 0.32779101
0.0309042 -0.0400053 0.31827801
0.024609899 -0.042116199 0.32229501
0.022827201 -0.054037601 0.31837699
0.0332385 -0.051049601 0.311445
0.037540901 -0.037261099 0.313173
0.043183099 -0.0353393 0.30867901
0.048409801 -0.033440199 0.30658901
0.046518199 -0.048683401 0.30110201
0.0690514 -0.0435743 0.29860699
0.068506397 -0.027645599 0.306963
0.075591199 -0.0261997 0.30668199
0.0123529 -0.079768099 0.30720901
0.018184001 -0.065287203 0.314688
0.0099695297 -0.0659687 0.317247
0.0266058 -0.060635202 0.312163
0.030458899 -0.078789897 0.29581299
0.040844899 -0.062700897 0.29862699
0.0329252 -0.063234597 0.304993
0.045233499 -0.0773485 0.282469
0.0472514 -0.062612303 0.293329
0.12185 0.0500791 0.19712999
0.121987 0.0561345 0.20604099
0.121545 0.044224702 0.18845101
0.120955 0.039051101 0.181646
0.120003 0.048351001 0.181842
0.118499 0.0525527 0.17452499
0.118114 0.046301201 0.167299
0.116869 0.057643801 0.165301
0.115137 0.055208702 0.145254
0.11523 0.0629614 0.153723
0.119045 0.0275282 0.17216501
0.118779 0.037019599 0.169286
0.120197 0.033959001 0.176377
0.11609 0.032348201 0.156579
0.116109 0.043245502 0.150796
0.117453 0.039744601 0.161189
0.11399 0.0388197 0.133083
0.113155 0.052161001 0.123997
0.114803 0.0471786 0.137826
0.111916 0.047541 0.10474
0.111516 0.056898002 0.111054
0.117439 0.0191296 0.167968
0.11533 0.0114992 0.163064
0.115772 0.021457501 0.160657
0.114559 0.023585301 0.152997
0.113233 0.0153435 0.150932
0.113757 0.026199101 0.142658
0.113051 0.0197365 0.12566
0.113127 0.0334884 0.11313
0.113514 0.029515 0.128773
0.112735 0.037475001 0.098475598
0.114797 0.00240625 0.16199701
0.113553 0.0080551105 0.15697999
0.111859 -0.00054526998 0.147495
0.112348 0.0081781503 0.138322
0.112426 0.00729769 0.149463
0.112108 -0.00100104 0.118993
0.112797 0.0089516696 0.121851
0.112217 -0.0149556 0.154158
0.112271 -0.0072847898 0.15202899
0.114037 -0.0055493899 0.15887301
0.111121 -0.0085534398 0.145292
0.109398 -0.016930601 0.14243899
0.110869 -0.0094880303 0.133653
0.11034 -0.0202311 0.11444
0.111541 -0.010726 0.116402
0.109336 -0.0249677 0.14931899
0.105328 -0.035301901 0.145046
0.10774 -0.0257164 0.144394
0.1068 -0.0266954 0.139493
0.102906 -0.037398301 0.136714
0.107058 -0.0285086 0.12885299
0.105267 -0.045446299 0.111704
0.108305 -0.031661902 0.113973
0.100829 -0.045081601 0.142593
0.095085099 -0.054313701 0.14294399
0.099185303 -0.0462786 0.139121
0.098937698 -0.050013099 0.13253701
0.100256 -0.055349901 0.121299
0.094527803 -0.064866699 0.126636
0.082325503 -0.070790999 0.14926399
0.086135902 -0.068594202 0.14116099
0.088842303 -0.062998101 0.14542399
0.089463301 -0.081401497 0.119017
0.088488601 -0.072681703 0.13119601
0.081651598 -0.080163904 0.13712899
0.082135901 -0.097256601 0.113404
0.0896459 -0.090133399 0.105498
0.075623803 -0.081089303 0.151315
0.076824799 -0.077772602 0.156165
0.079131499 -0.083471701 0.16006599
0.071310103 -0.083762698 0.163481
0.074171402 -0.096540399 0.133986
0.074904598 -0.087617502 0.143828
0.068788201 -0.091910496 0.154056
0.072390497 -0.111658 0.109612
0.073695697 -0.104868 0.122419
0.064912602 -0.11137 0.13281301
0.060821299 -0.123665 0.107716
0.071043797 -0.117137 0.096221998
0.0156024 -0.143364 0.106163
0.0120798 -0.144087 0.090276897
0.060341701 -0.095101401 0.17568301
0.063968301 -0.094361298 0.16492601
0.065234803 -0.090190098 0.169127
0.068651602 -0.092544898 0.16974901
0.062224999 -0.101329 0.15893
0.056789201 -0.106668 0.16633201
0.0576877 -0.111182 0.153797
0.0541045 -0.123391 0.13171799
0.057101499 -0.116965 0.142501
0.050050098 -0.121623 0.152355
0.042061199 -0.13265499 0.13125101
0.051267002 -0.128941 0.119265
0.0475858 -0.132571 0.106527
0.031981401 -0.139037 0.106993
0.043722901 -0.135484 0.094781302
0.053434499 -0.102263 0.18866099
0.054423101 -0.104009 0.17882299
0.056233 -0.099200398 0.182282
0.0594211 -0.100316 0.182632
0.046387699 -0.116987 0.18196601
0.046362299 -0.120458 0.17116299
0.051684499 -0.111194 0.174335
0.039085001 -0.131597 0.153148
0.043955501 -0.126256 0.16165601
0.0404885 -0.12747499 0.173906
0.027186001 -0.13955399 0.13181899
0.034038 -0.136187 0.142823
0.025722699 -0.138603 0.158537
0.0126864 -0.143534 0.140927
0.020536801 -0.14229 0.120434
0.054033399 -0.106128 0.195416
0.050960701 -0.105161 0.195251
0.0470853 -0.110552 0.196511
0.040755901 -0.123923 0.18508001
0.044100899 -0.11651 0.19254801
0.0429914 -0.115735 0.20218299
0.029910401 -0.132146 0.199861
0.0240866 -0.136981 0.18783601
0.034161601 -0.13143399 0.18474799
0.0118149 -0.14067499 0.199166
0.0176792 -0.140302 0.177534
0.012036 -0.142617 0.161551
0.0396467 -0.119288 0.212493
0.038691498 -0.118472 0.225031
0.0338955 -0.125934 0.213597
0.0263841 -0.132075 0.216086
0.0251607 -0.129291 0.23107199
0.017278999 -0.136746 0.223
0.0090655396 -0.14048401 0.21793
0.0108791 -0.136351 0.23633499
0.043248098 -0.111016 0.23631001
0.038552701 -0.114623 0.238886
0.039947301 -0.105993 0.25339299
0.0324376 -0.119178 0.24237899
0.0259884 -0.112689 0.26471001
0.0161738 -0.127672 0.25219601
0.024714099 -0.123483 0.247777
0.0054443898 -0.119012 0.27604201
0.00790512 -0.131148 0.25543699
0.0424385 -0.092735603 0.268709
0.036270302 -0.095041603 0.27434301
0.0187163 -0.091342501 0.294673
0.0280903 -0.096718296 0.28207001
0.0084988596 -0.099218398 0.29422101
-0.054093901 -0.107863 0.23339599
-0.048779499 -0.107926 0.237298
0.053571101 -0.107393 0.23048601
0.048292901 -0.10761 0.234079
0.129049 -0.0974456 0.20713601
0.12843101 -0.083710998 0.21337999
0.12773 -0.098117903 0.215002
0.12599801 -0.098031901 0.222
0.12708201 -0.115266 0.214459
0.127792 -0.0826234 0.19007701
0.129032 -0.096763402 0.196641
0.127451 -0.095617197 0.18469299
0.12671401 -0.111953 0.178831
0.124661 -0.094486102 0.17354301
0.112975 -0.102947 0.237826
0.116799 -0.118112 0.229642
0.121578 -0.098821498 0.229489
0.125688 -0.081317 0.22933599
0.120363 -0.093984097 0.165776
0.116573 -0.110969 0.162928
0.114624 -0.0935359 0.160206
0.107436 -0.093450204 0.157764
0.11185 -0.078937396 0.157616
0.0613655 -0.109481 0.18751
0.065173201 -0.107121 0.180978
0.069636099 -0.104273 0.17464299
0.0714681 -0.119648 0.17817201
0.088926002 -0.087426901 0.15898401
0.098990597 -0.092502803 0.15773199
0.104116 -0.111599 0.16024099
0.064598203 -0.123693 0.18931399
0.058513001 -0.112435 0.19402701
0.055941299 -0.111688 0.201379
0.085636601 -0.115448 0.16765501
0.075736701 -0.100836 0.16917901
0.0824022 -0.096037999 0.164014
0.116527 -0.074018203 0.243178
0.106266 -0.084657803 0.25008601
0.109502 -0.0917053 0.244252
0.100698 -0.106701 0.24558499
0.082053699 -0.123256 0.24468499
0.093751997 -0.13144 0.24196801
0.091331497 -0.118186 0.24695601
0.088933498 -0.107977 0.25093701
0.069942601 -0.114799 0.24330699
0.072858103 -0.125475 0.238719
0.066681102 -0.12814599 0.229256
0.074494399 -0.137356 0.234905
0.058262199 -0.112243 0.226592
0.059217401 -0.120086 0.215241
0.061356999 -0.12248 0.222712
0.063542202 -0.134322 0.21996801
0.060697999 -0.13014001 0.20788901
0.057583999 -0.117654 0.207541
0.129656 -0.113514 0.199402
0.121965 -0.0802911 0.16913299
0.110578 -0.065207802 0.25706699
0.103448 -0.073707402 0.26260701
0.104195 -0.079847202 0.256145
0.096176401 -0.0919789 0.25570601
0.124894 -0.031110199 0.175042
0.12718201 -0.0195815 0.183966
0.12874401 -0.0189535 0.194387
0.124402 -0.042834502 0.176148
0.120782 -0.0422161 0.167484
0.117048 -0.053941902 0.162229
0.128434 -0.053300101 0.223803
0.127352 -0.066324197 0.227975
0.128243 -0.068699203 0.21876501
0.128489 -0.070134401 0.207536
0.118874 -0.0666622 0.165714
0.114369 -0.065944202 0.159594
0.128538 -0.0311381 0.19551399
0.12903801 -0.017814901 0.20468099
0.128765 -0.016581099 0.214397
0.124464 -0.055506401 0.178022
0.126756 -0.0435072 0.186003
0.12801901 -0.0439597 0.196989
0.125678 -0.068799697 0.182603
0.122497 -0.067508303 0.172824
0.128405 -0.029414 0.21624701
0.12860399 -0.0147278 0.22328401
0.12899201 -0.0123183 0.232417
0.128223 -0.056979898 0.201052
0.12816399 -0.043414298 0.20813601
0.128483 -0.041422199 0.219147
0.12797201 -0.069797702 0.195048
0.129475 -0.023861701 0.235577
0.129649 -0.0094394498 0.240981
0.129444 -0.0070831901 0.249035
0.12834001 -0.0343097 0.240143
0.129053 -0.038150799 0.229505
0.124282 -0.067331597 0.236169
0.127317 -0.018939501 0.253126
0.12819999 -0.0054115802 0.25602499
0.126122 -0.0042416598 0.26223499
0.124003 -0.044380698 0.24625701
0.126239 -0.031612601 0.249566
0.123236 -0.029732499 0.25730899
0.120651 -0.00083262002 0.27405301
0.12389 -0.0025764201 0.26790801
0.122694 -0.0168317 0.26522899
0.118273 -0.039539099 0.260995
0.120855 -0.0286429 0.263091
0.117952 -0.027376801 0.26877999
0.115743 -0.0139123 0.27776599
0.11715 0.000605968 0.28111199
0.111271 0.0026567399 0.29078799
0.078797303 -0.085970499 0.269162
0.087755702 -0.092702903 0.26173201
0.087825499 -0.082828 0.26999
0.095615201 -0.076029196 0.27025899
0.0871296 -0.069820002 0.27966499
0.087629303 -0.100691 0.25536299
0.077700198 -0.104746 0.25311801
0.066900298 -0.099115297 0.25600901
0.068038397 -0.088394798 0.266139
0.069392301 -0.074738003 0.278171
0.060582601 -0.107935 0.238112
0.067461602 -0.10681 0.24800199
0.101875 -0.0098450296 0.297768
0.084265202 -0.039880201 0.297838
0.083179399 -0.0242784 0.30599901
0.0918402 -0.018751699 0.30350101
0.101266 -0.024132401 0.29266399
0.102605 -0.0349744 0.286787
0.108869 -0.025496701 0.28287601
0.069289997 -0.0597343 0.288802
0.077727601 -0.0576436 0.28951901
0.092823602 -0.051233601 0.28833801
0.0857023 -0.055502001 0.28905001
0.100257 -0.056802802 0.27913001
0.099361099 -0.046498802 0.28557
0.10657 -0.055255 0.27118501
0.101915 -0.066991098 0.270356
0.112158 -0.035326801 0.27388099
0.114178 -0.026051501 0.27537099
0.117726 -0.054693099 0.251883
0.121411 -0.058717798 0.243883
0.115111 -0.051803 0.258757
0.112853 -0.048363101 0.26508
0.109718 -0.045169201 0.272313
0.10541 -0.040883701 0.28062701
0.081156798 -0.27360901 0.19219799
0.077810504 -0.26541001 0.197558
0.081736997 -0.26528499 0.19122399
0.083168298 -0.2543 0.188804
0.087547302 -0.26285201 0.186813
0.078689799 -0.25648201 0.216483
0.076892503 -0.26736 0.213424
0.0788932 -0.26880699 0.21893699
0.078632899 -0.27880499 0.221283
0.0832377 -0.27120501 0.222764
0.0864968 -0.241937 0.18491399
0.090955198 -0.22724099 0.179332
0.092805997 -0.242663 0.181394
0.10019 -0.243323 0.179663
0.093442701 -0.25540501 0.182806
0.077648804 -0.235682 0.194456
0.080140002 -0.225223 0.18773501
0.081167899 -0.24096601 0.18905701
0.101589 -0.266655 0.180499
0.096792199 -0.27381 0.18071499
0.094234101 -0.26613101 0.182924
0.107374 -0.228862 0.17726
0.107717 -0.244192 0.179625
0.114613 -0.245326 0.181528
0.108194 -0.25690901 0.180427
0.108495 -0.26759699 0.179609
0.114454 -0.26930001 0.181214
0.11028 -0.27533999 0.17813601
0.120607 -0.230736 0.182446
0.120386 -0.246924 0.184236
0.124265 -0.25305301 0.189236
0.120026 -0.26032701 0.18476801
0.119426 -0.271272 0.18398499
0.123064 -0.27279601 0.188648
0.118662 -0.27847201 0.18240599
0.12784401 -0.231031 0.192681
0.127822 -0.242305 0.200583
0.127276 -0.248301 0.194435
0.12588701 -0.26254699 0.19303501
0.12706 -0.27521899 0.201046
0.127019 -0.28316399 0.1953
0.12603199 -0.274115 0.194662
0.127221 -0.22975799 0.205305
0.12586699 -0.24756099 0.207185
0.121851 -0.253764 0.213009
0.125762 -0.26334801 0.207425
0.123785 -0.28062999 0.21263599
0.126421 -0.28641501 0.208028
0.126408 -0.27649701 0.207214
0.116399 -0.229872 0.218683
0.110398 -0.24781699 0.223308
0.116777 -0.248253 0.218647
0.117857 -0.26483801 0.21831299
0.112869 -0.27831399 0.22236
0.119349 -0.27799901 0.217905
0.120682 -0.28780499 0.216672
0.103297 -0.228856 0.22649001
0.096429698 -0.245685 0.22650801
0.103655 -0.24712101 0.226493
0.104109 -0.26444301 0.22638001
0.106614 -0.28823501 0.22436699
0.105257 -0.27820799 0.225859
0.097259402 -0.27692401 0.227107
0.087247103 -0.227092 0.223657
0.082093097 -0.242569 0.219212
0.088548601 -0.24405 0.223804
0.089342304 -0.26048201 0.22484
0.089698598 -0.274425 0.22586399
0.090112701 -0.28482801 0.22623301
0.076657601 -0.225961 0.213974
0.076523103 -0.241144 0.20945001
0.077966698 -0.24204101 0.214838
0.076364502 -0.25438601 0.203667
0.076138496 -0.24039499 0.202218
0.074910499 -0.224788 0.20083199
0.075211599 -0.27475899 0.20816
0.075994998 -0.266233 0.205847
0.094089903 -0.21105701 0.175008
0.088372797 -0.210255 0.177635
0.083047003 -0.209249 0.18192799
0.085063003 -0.191735 0.176392
0.077303298 -0.17153201 0.18054301
0.0786594 -0.15324999 0.17573901
0.081911698 -0.17257801 0.175809
0.087324299 -0.17335001 0.172226
0.070679702 -0.13128801 0.18301301
0.075852104 -0.135059 0.17639901
0.081999198 -0.14094201 0.172115
0.114183 -0.21301199 0.17687
0.107149 -0.212368 0.17478999
0.100568 -0.20633601 0.17357799
0.106853 -0.19388101 0.172133
0.099513598 -0.174126 0.170072
0.102349 -0.153873 0.167805
0.106083 -0.17450701 0.169774
0.113158 -0.174964 0.17114399
0.11038 -0.124794 0.16275901
0.103215 -0.132374 0.164507
0.095478997 -0.13362201 0.16732401
0.120208 -0.136152 0.220631
0.112941 -0.13709199 0.22790401
0.104117 -0.14045601 0.23356099
0.110856 -0.155901 0.22570901
0.067197599 -0.137988 0.188767
0.068505801 -0.15351 0.188371
0.0649876 -0.143223 0.19471601
0.068769902 -0.164922 0.191871
0.0728397 -0.170754 0.18545499
0.075904697 -0.189713 0.185692
0.078510299 -0.20821901 0.186562
0.074496999 -0.202674 0.191829
0.087894097 -0.13474301 0.16929901
0.088227198 -0.154504 0.170213
0.093078203 -0.173847 0.170588
0.096198298 -0.193058 0.172134
0.118009 -0.131514 0.166932
0.123813 -0.13203 0.17454199
0.118994 -0.154082 0.17127299
0.119681 -0.175593 0.174703
0.124578 -0.182042 0.180711
0.120224 -0.195141 0.17761201
0.120477 -0.213783 0.18019401
0.124967 -0.21945199 0.18565799
0.12777001 -0.13249101 0.18306001
0.12930401 -0.13278501 0.191875
0.128547 -0.154294 0.18688101
0.12897 -0.168772 0.192534
0.12775899 -0.175387 0.185818
0.12783299 -0.194824 0.188054
0.128033 -0.21332499 0.190538
0.129232 -0.207146 0.19566099
0.128148 -0.13400701 0.20705301
0.129133 -0.15446299 0.199928
0.129365 -0.133029 0.199563
0.129059 -0.175056 0.19998901
0.127565 -0.181657 0.205505
0.129253 -0.19415399 0.200617
0.128599 -0.212236 0.20241299
0.123373 -0.155564 0.21396001
0.12566701 -0.13469701 0.21348
0.119878 -0.176589 0.21566799
0.124505 -0.17601199 0.210878
0.125251 -0.19504701 0.20945901
0.125862 -0.212681 0.207939
0.121341 -0.212861 0.213498
0.107358 -0.17620499 0.22492
0.114286 -0.176485 0.22064701
0.115492 -0.196182 0.219447
0.116066 -0.21310399 0.218771
0.109782 -0.21297 0.223286
0.094852701 -0.14432301 0.23694
0.084856503 -0.14768 0.236176
0.093218297 -0.159612 0.23351701
0.0895641 -0.17715301 0.229569
0.098787896 -0.176561 0.228861
0.101349 -0.1961 0.226952
0.094398603 -0.21260101 0.226456
0.102638 -0.21298499 0.226496
0.075846799 -0.147635 0.23152
0.069967501 -0.149277 0.223038
0.075390302 -0.159915 0.22640599
0.074387603 -0.175924 0.21953
0.080825299 -0.17716201 0.226191
0.083693497 -0.19572701 0.224231
0.079364099 -0.21125799 0.217941
0.085805103 -0.211972 0.223248
0.0631295 -0.13979501 0.211394
0.065401398 -0.14499 0.217213
0.067515701 -0.15794601 0.215183
0.072945297 -0.193509 0.212484
0.070143498 -0.17476401 0.213199
0.0685727 -0.17332999 0.206875
0.073657997 -0.20974401 0.20677701
0.075168297 -0.210338 0.21278401
0.065483399 -0.154212 0.1983
0.0629877 -0.14080299 0.20321301
0.0681981 -0.171831 0.19924299
0.070918202 -0.19086801 0.198789
0.073262498 -0.208702 0.199352
0.131384 -0.34016001 0.18404999
0.128436 -0.33237001 0.18743099
0.129669 -0.34189099 0.18679699
0.077390604 -0.341355 0.19844501
0.077536598 -0.34669501 0.20450599
0.080329902 -0.34050399 0.201519
0.0831756 -0.34197199 0.203205
0.0822969 -0.33375099 0.20332
0.083532996 -0.34912801 0.20832001
0.086108103 -0.345323 0.205029
0.088172697 -0.35014299 0.209479
0.088327996 -0.34300101 0.204935
0.091078497 -0.34089801 0.204411
0.087542601 -0.33517399 0.205034
0.095091999 -0.33612901 0.20502999
0.094794303 -0.343014 0.20531499
0.094829403 -0.34824601 0.211109
0.098510697 -0.3436 0.20522501
0.101793 -0.33688599 0.204983
0.101791 -0.344998 0.204923
0.102506 -0.35281101 0.209525
0.104626 -0.34792301 0.205147
0.106797 -0.352671 0.2089
0.108676 -0.346825 0.20387299
0.13288 -0.34087101 0.180355
0.13469499 -0.34594399 0.177498
0.131534 -0.336804 0.177543
0.129641 -0.334602 0.174366
0.128969 -0.32815701 0.181382
0.12698101 -0.343705 0.18964
0.132009 -0.34896901 0.190336
0.122417 -0.33607501 0.193957
0.123862 -0.34540001 0.19210701
0.121336 -0.34852201 0.19451299
0.126325 -0.35242 0.19440199
0.116445 -0.34558201 0.197936
0.121179 -0.35312 0.19776499
0.113518 -0.33687001 0.20038
0.112097 -0.34452501 0.20119201
0.11367 -0.349814 0.206936
0.074387699 -0.34556401 0.19312701
0.0758527 -0.33791399 0.19422901
0.076182902 -0.33037299 0.196457
0.074842103 -0.335435 0.189613
0.073973604 -0.34041399 0.182807
0.0741539 -0.33302701 0.18575101
0.074126899 -0.32557699 0.188099
0.075586401 -0.328738 0.18261699
0.0850311 -0.32649899 0.17237601
0.079450302 -0.33653 0.173372
0.0794468 -0.328136 0.177147
0.077689402 -0.32163301 0.182602
0.097347803 -0.32487199 0.165342
0.0913039 -0.33537099 0.164892
0.090947703 -0.325679 0.168157
0.090864301 -0.31665599 0.17193
0.111049 -0.32436001 0.163919
0.105635 -0.33403301 0.161191
0.104271 -0.32428199 0.16378801
0.10335 -0.31520799 0.167199
0.115931 -0.316441 0.168355
0.117521 -0.32568699 0.16523699
0.122649 -0.32864201 0.167867
0.119364 -0.33601299 0.163139
0.125356 -0.32225001 0.17474601
0.12691601 -0.33178899 0.17112701
0.12913699 -0.341721 0.169502
0.075687401 -0.30950901 0.203658
0.074941501 -0.31786099 0.19487201
0.076054603 -0.32047001 0.19972201
0.078263201 -0.322694 0.20402899
0.080714896 -0.31428301 0.21171001
0.081378803 -0.32418999 0.206508
0.084541298 -0.32866099 0.205946
0.113877 -0.298774 0.174619
0.110921 -0.291302 0.175791
0.116329 -0.292806 0.1779
0.118503 -0.28872401 0.180887
0.120821 -0.29500401 0.18192001
0.12026 -0.30939901 0.175291
0.115154 -0.30735001 0.172114
0.109268 -0.30629799 0.170963
0.12659299 -0.31551901 0.183723
0.127249 -0.30915999 0.19177701
0.127327 -0.31851301 0.18721101
0.127388 -0.324168 0.18793599
0.108432 -0.30419099 0.218465
0.100616 -0.310509 0.21666799
0.109192 -0.31049401 0.21406201
0.110404 -0.31770599 0.209077
0.116154 -0.30958 0.21040601
0.121731 -0.325203 0.19716001
0.117178 -0.32996899 0.19922601
0.105504 -0.32752499 0.206521
0.111274 -0.32708299 0.204143
0.0758963 -0.31812701 0.18838499
0.079352804 -0.29714599 0.219917
0.076997302 -0.30291 0.212929
0.079994097 -0.305435 0.216373
0.085128501 -0.307468 0.217696
0.089052498 -0.326233 0.20806099
0.122647 -0.31473699 0.20063899
0.12507799 -0.32332599 0.19356801
0.123399 -0.303045 0.181999
0.124572 -0.31228399 0.179221
0.076631002 -0.293778 0.200183
0.078520499 -0.28704801 0.19549499
0.080522798 -0.29422301 0.19214199
0.086034201 -0.29463699 0.185954
0.082074396 -0.30178601 0.18745901
0.079892799 -0.31189299 0.185415
0.085602798 -0.30620399 0.18173701
0.092853501 -0.28497601 0.181879
0.098488897 -0.290371 0.17763799
0.092090897 -0.29097801 0.181403
0.089662701 -0.29893899 0.18054999
0.091160297 -0.30739 0.175896
0.097174004 -0.30641299 0.17286099
0.101994 -0.297465 0.174062
0.104924 -0.29047301 0.175439
0.106367 -0.28505999 0.176102
0.103288 -0.305886 0.170965
0.125407 -0.29339001 0.189532
0.12704299 -0.30079299 0.19246
0.12481 -0.29780701 0.187163
0.12747701 -0.299108 0.200909
0.124709 -0.30622101 0.20202801
0.12711801 -0.30371001 0.197529
0.121238 -0.30267 0.210862
0.12128 -0.30815899 0.20651101
0.093636803 -0.31744999 0.213076
0.0920019 -0.309237 0.218068
0.0911735 -0.30203801 0.22197101
0.094660297 -0.32702899 0.20781501
0.099793702 -0.330928 0.206104
0.074903801 -0.29055199 0.20945001
0.075356297 -0.299436 0.207004
0.135197 -0.34740201 0.184246
0.083967 -0.29121801 0.223857
0.090649702 -0.294029 0.22471599
0.0989099 -0.29608801 0.224116
0.10771 -0.29694399 0.221964
0.115412 -0.29679301 0.21854401
0.124713 -0.29522899 0.209692
0.121099 -0.29612499 0.21462201
0.127529 -0.293704 0.204181
0.127914 -0.29167801 0.197877
0.12592401 -0.288957 0.191578
0.121772 -0.28757301 0.18550301
0.117802 -0.28384301 0.18121199
0.113366 -0.28071401 0.178573
0.101084 -0.27978301 0.178187
0.107677 -0.28047299 0.17686599
0.086892202 -0.28007299 0.187278
0.093980603 -0.27981499 0.18176299
0.076288 -0.28079101 0.201134
0.080405198 -0.280359 0.193518
0.076143801 -0.28529501 0.21733899
0.074810296 -0.282603 0.209796
0.078866303 -0.28838199 0.22188599
0.107993 -0.39021701 0.171524
0.107639 -0.393282 0.175172
0.103828 -0.39242101 0.17455199
0.099248998 -0.39440799 0.178271
0.098462097 -0.39174601 0.17554
0.117315 -0.39151001 0.175455
0.117611 -0.39314201 0.18048
0.112247 -0.39392501 0.17744
0.104599 -0.395374 0.17992599
0.0716995 -0.36165199 0.178684
0.072198696 -0.35285601 0.18561199
0.072797202 -0.350324 0.179894
0.075450301 -0.34473801 0.175753
0.074334703 -0.37029099 0.174402
0.071117297 -0.37176299 0.179575
0.071695097 -0.37974101 0.181554
0.069658801 -0.37274101 0.18538401
0.075781301 -0.385315 0.17949
0.072885796 -0.38573301 0.18288
0.075639203 -0.38990399 0.184819
0.071476199 -0.38591301 0.187234
0.080178902 -0.39317599 0.186896
0.081201203 -0.393011 0.18457399
0.083749004 -0.392519 0.182408
0.088483803 -0.39470199 0.18391301
0.111035 -0.39482701 0.189704
0.114756 -0.393794 0.19287001
0.109415 -0.39517 0.191258
0.107426 -0.39547399 0.192994
0.106759 -0.39632699 0.189666
0.12151 -0.39445201 0.20182499
0.115041 -0.395336 0.200149
0.118309 -0.39412799 0.19715901
0.12083 -0.39307401 0.194887
0.078592703 -0.392838 0.199477
0.0743884 -0.39038101 0.198158
0.079679303 -0.39356399 0.195563
0.079549097 -0.39346299 0.192486
0.084220298 -0.39518499 0.19224299
0.081523903 -0.39237601 0.206891
0.084030397 -0.393673 0.201175
0.085705101 -0.39368999 0.201997
0.0891563 -0.395677 0.198139
0.0876946 -0.393884 0.202296
0.113924 -0.38924301 0.171369
0.120954 -0.389045 0.174245
0.124213 -0.38600999 0.174049
0.12817401 -0.38851401 0.178995
0.076375 -0.39215401 0.20431501
0.081993103 -0.39367399 0.20008799
0.085891098 -0.39539501 0.19559
0.076741703 -0.39263901 0.21068101
0.072442502 -0.39257401 0.213606
0.0737077 -0.39232901 0.20919199
0.071397901 -0.390894 0.207775
0.069527 -0.39036301 0.215087
0.0722223 -0.391276 0.217822
0.075440697 -0.39117399 0.219335
0.072310001 -0.38805401 0.22171
0.075032897 -0.38378301 0.22744
0.073299497 -0.378398 0.228291
0.071983598 -0.38422301 0.22566301
0.069373898 -0.38289601 0.222357
0.075027101 -0.36138999 0.221347
0.070468798 -0.369234 0.223019
0.0733836 -0.370222 0.226937
0.076963201 -0.37094301 0.22844499
0.079955101 -0.35440201 0.21495099
0.076685101 -0.353569 0.212769
0.073778398 -0.35458699 0.207343
0.0842489 -0.39184099 0.217996
0.0834933 -0.39147201 0.215259
0.0858685 -0.392551 0.21335401
0.0873193 -0.39283299 0.207792
0.088732697 -0.39316201 0.210968
0.087288402 -0.39557299 0.22527801
0.083680503 -0.39185199 0.22797599
0.084261797 -0.39237499 0.223249
0.082367197 -0.39033699 0.22075599
0.086685799 -0.39127201 0.238492
0.084968999 -0.38191199 0.23647401
0.083396398 -0.389341 0.232904
0.081606202 -0.387779 0.227322
0.0889237 -0.37074801 0.238015
0.086124897 -0.37151101 0.232728
0.088079602 -0.36214101 0.22651599
0.085257903 -0.369755 0.227943
0.091646701 -0.35371301 0.21990401
0.089071602 -0.35549 0.21818
0.087254301 -0.35752001 0.216627
0.069553502 -0.38799801 0.20584901
0.068241999 -0.38321099 0.204715
0.070463203 -0.38693899 0.200754
0.071323797 -0.38775 0.19577
0.068798698 -0.389328 0.211153
0.069257401 -0.380438 0.19148199
0.070716903 -0.38615599 0.191561
0.074222103 -0.39026299 0.192147
0.067929797 -0.38564199 0.214305
0.0677858 -0.37046701 0.206282
0.067910403 -0.37503901 0.197641
0.0672222 -0.37715799 0.20444199
0.067285903 -0.381174 0.210558
0.091889702 -0.39412299 0.180608
0.094277598 -0.395385 0.181327
0.090203799 -0.39410999 0.18172701
0.090034097 -0.396404 0.19475301
0.090806298 -0.395915 0.197982
0.084246203 -0.39501801 0.189676
0.086692303 -0.39594901 0.191581
0.106683 -0.396678 0.187272
0.108331 -0.39604601 0.18810301
0.10082 -0.396415 0.194415
0.099022403 -0.396065 0.19554199
0.097144298 -0.39657301 0.19282
0.103717 -0.39644501 0.186443
0.109844 -0.39573601 0.18547601
0.0952323 -0.39554101 0.181935
0.096666798 -0.39574501 0.182943
0.088152498 -0.39611101 0.192664
0.0905791 -0.39623201 0.192866
0.099825703 -0.396079 0.184634
0.0984964 -0.39626399 0.188352
0.096094601 -0.39631301 0.19070201
0.101084 -0.39619601 0.19193199
0.093256101 -0.39629599 0.192149
0.0934003 -0.395978 0.195875
0.12982699 -0.37034401 0.16981401
0.134363 -0.36320499 0.172647
0.136428 -0.371696 0.176121
0.14122701 -0.372192 0.182952
0.137069 -0.37783 0.17922901
0.130032 -0.38239601 0.175813
0.13680799 -0.38283801 0.181826
0.14124399 -0.38418201 0.188382
0.13556901 -0.38663599 0.18366601
0.14524101 -0.369876 0.19600999
0.145822 -0.376982 0.194126
0.144401 -0.371604 0.18966
0.141734 -0.36451399 0.185342
0.14572699 -0.38162899 0.198724
0.144724 -0.382213 0.193718
0.14237399 -0.38648 0.193663
0.13894001 -0.355903 0.185257
0.1384 -0.35556901 0.180656
0.13570499 -0.35462499 0.174977
0.079556398 -0.393327 0.189906
0.081919 -0.36364901 0.224059
0.085145801 -0.35955 0.219428
0.083162203 -0.35612601 0.216197
0.132232 -0.35618299 0.19850899
0.138693 -0.36067599 0.204466
0.13504399 -0.35453501 0.196796
0.137216 -0.354469 0.193808
0.13868999 -0.370491 0.21134099
0.143438 -0.37690899 0.21250799
0.141968 -0.36875701 0.210418
0.14440501 -0.36788699 0.20712
0.145935 -0.38078001 0.20907401
0.142685 -0.38341799 0.21099199
0.139083 -0.38530001 0.211301
0.139984 -0.38816601 0.20623501
0.140523 -0.38954401 0.20132799
0.137334 -0.391994 0.20096999
0.134377 -0.39276701 0.20115501
0.133904 -0.39356101 0.19498301
0.126984 -0.39286199 0.19057401
0.123125 -0.39264199 0.18516199
0.129591 -0.39306599 0.188961
0.133641 -0.392306 0.18926799
0.126699 -0.35028899 0.165334
0.122306 -0.35897499 0.162545
0.121133 -0.34765199 0.162057
0.114325 -0.34565201 0.15999199
0.13828 -0.39004999 0.19174799
0.133991 -0.38982299 0.185431
0.069749802 -0.36470699 0.19109
0.071240403 -0.35836801 0.199582
0.071847104 -0.35486701 0.19195899
0.068006903 -0.37585399 0.22066499
0.068378501 -0.36905599 0.21568701
0.068649396 -0.37334701 0.190992
0.069897696 -0.36264399 0.208212
0.067683697 -0.381253 0.217492
0.078640699 -0.38030601 0.227966
0.081540696 -0.37626001 0.227576
0.080136701 -0.37221599 0.228239
0.077979699 -0.38551101 0.22598501
0.078817599 -0.387822 0.223373
0.079758301 -0.38559201 0.225605
0.079826601 -0.388778 0.22215199
0.078173399 -0.39028299 0.22051901
0.078669898 -0.391938 0.216723
0.081308 -0.39140201 0.21479701
0.079721898 -0.39223999 0.212212
0.089337103 -0.394162 0.20207299
0.091466904 -0.394537 0.201474
0.079175599 -0.34729901 0.16980401
0.085152298 -0.34680101 0.165696
0.080961101 -0.35796499 0.167344
0.079577602 -0.377152 0.172996
0.079244502 -0.368485 0.169725
0.085708603 -0.36715499 0.166271
0.086758099 -0.38281599 0.172959
0.080394603 -0.38411701 0.176089
0.081429601 -0.38887599 0.179267
0.0864143 -0.39197099 0.18088201
0.089979202 -0.39269 0.180154
0.099289797 -0.34553301 0.160326
0.094622202 -0.35666001 0.16117699
0.091941103 -0.34619501 0.162485
0.100145 -0.36340201 0.160606
0.092587098 -0.36644399 0.163298
0.092912897 -0.37466699 0.166209
0.100749 -0.37958801 0.166465
0.093643099 -0.381843 0.169669
0.093580097 -0.38728401 0.173621
0.093387596 -0.391608 0.17731801
0.107719 -0.35609901 0.15918501
0.10705 -0.345009 0.159394
0.115663 -0.367035 0.161626
0.108169 -0.374259 0.16332
0.107945 -0.36608699 0.16046099
0.108412 -0.38131601 0.166373
0.115766 -0.38150501 0.167382
0.110182 -0.38607401 0.16864701
0.131951 -0.35257399 0.170013
0.123121 -0.368487 0.164606
0.123154 -0.375884 0.16745
0.122852 -0.381771 0.170344
0.14224 -0.36143699 0.196767
0.138593 -0.35487899 0.190125
0.146942 -0.37561101 0.205962
0.145597 -0.368422 0.202325
0.146254 -0.38158 0.20388301
0.143659 -0.385717 0.201184
0.141369 -0.38880199 0.197641
0.1159 -0.39382499 0.184028
0.114203 -0.394005 0.186295
0.128704 -0.36166099 0.20119099
0.13268 -0.36457399 0.20585699
0.12946799 -0.358289 0.199257
0.13332801 -0.37424201 0.209821
0.136553 -0.38071701 0.212458
0.135525 -0.372587 0.210913
0.132788 -0.38781899 0.20856901
0.133634 -0.390118 0.205773
0.13572399 -0.38655299 0.210545
0.131687 -0.39238399 0.201262
0.129125 -0.392308 0.20016
0.128668 -0.39302599 0.19658899
0.119901 -0.35614499 0.211923
0.126095 -0.364369 0.214184
0.123197 -0.35836801 0.20530801
0.125677 -0.36025101 0.200133
0.1256 -0.37051699 0.23111799
0.129195 -0.38017499 0.227156
0.12880901 -0.37214801 0.221876
0.130757 -0.373916 0.213246
0.127299 -0.38545001 0.23183601
0.12939601 -0.38744599 0.221255
0.126903 -0.391442 0.214742
0.13107701 -0.387288 0.213204
0.120902 -0.39557901 0.21436401
0.124314 -0.39373201 0.208349
0.12687699 -0.392205 0.203334
0.122569 -0.392589 0.193491
0.11867 -0.39268601 0.189519
0.124419 -0.39262 0.19244
0.112926 -0.39432499 0.187952
0.113102 -0.357483 0.222444
0.119082 -0.361494 0.228756
0.116281 -0.35490099 0.217347
0.121943 -0.37029001 0.236424
0.1183 -0.37440801 0.23769701
0.12362 -0.379565 0.23792601
0.123496 -0.38758001 0.235383
0.119114 -0.38853699 0.23531801
0.119895 -0.39330801 0.228848
0.114368 -0.397549 0.21009199
0.117668 -0.396833 0.219117
0.114891 -0.39615899 0.22276001
0.108699 -0.396617 0.20485599
0.111576 -0.39647099 0.202894
0.109538 -0.395197 0.19750801
0.105775 -0.39552599 0.19443201
0.103462 -0.395944 0.194658
0.110465 -0.36472699 0.227272
0.108745 -0.358192 0.217825
0.106409 -0.360585 0.21713001
0.115718 -0.381365 0.23643699
0.112639 -0.37301499 0.23397499
0.109092 -0.37213799 0.230575
0.110015 -0.389781 0.22854701
0.112123 -0.39311501 0.226257
0.114159 -0.38878199 0.232884
0.109923 -0.39588901 0.219267
0.106962 -0.39507899 0.21728399
0.106929 -0.39617199 0.212798
0.104855 -0.39513201 0.209805
0.106013 -0.39584601 0.20671199
0.1044 -0.39487001 0.201378
0.100887 -0.394797 0.198024
0.102631 -0.39523301 0.196868
0.098614603 -0.356599 0.22509199
0.103044 -0.36417699 0.22881
0.102017 -0.358069 0.219009
0.104413 -0.36064899 0.217418
0.098360099 -0.37555301 0.241923
0.101855 -0.3829 0.239759
0.103511 -0.37287399 0.23608901
0.106639 -0.37445599 0.231904
0.097502001 -0.389761 0.242062
0.102715 -0.39086801 0.23569299
0.102002 -0.39438 0.229381
0.106398 -0.38928699 0.230763
0.096265703 -0.397733 0.228559
0.101188 -0.395794 0.222828
0.10038 -0.39546201 0.21595301
0.104648 -0.39409301 0.220174
0.0955697 -0.395542 0.21313401
0.099421903 -0.39454401 0.210131
0.099014796 -0.39370099 0.204328
0.102334 -0.39397901 0.209077
0.096102498 -0.39478701 0.20002501
0.0984625 -0.394604 0.19921599
0.094060697 -0.36064601 0.233133
0.094741002 -0.35327601 0.22150201
0.093943603 -0.38279 0.244398
0.093169898 -0.37121701 0.241732
0.091486603 -0.39173999 0.242056
0.091022402 -0.396541 0.235322
0.091194399 -0.397982 0.22724199
0.091370299 -0.39639401 0.21888
0.091679104 -0.39448801 0.21201999
0.0914106 -0.39365599 0.20654599
0.0934764 -0.39476901 0.200886
0.085434899 -0.36527899 0.223325
0.106959 -0.36818901 0.225481
0.129715 -0.36722401 0.204487
0.132614 -0.38185 0.211226
0.13196 -0.374845 0.20937
0.108385 -0.382846 0.230883
0.108095 -0.375808 0.230479
0.13209701 -0.38666901 0.209764
0.13032299 -0.38932499 0.205806
0.12856901 -0.39146399 0.201802
0.125866 -0.392546 0.197853
0.108338 -0.38811901 0.228718
0.10747 -0.39131001 0.22430401
0.106347 -0.393736 0.219542
0.10505 -0.39448801 0.214223
0.083479904 -0.37376401 0.226777
0.081493601 -0.38103199 0.22675
0.080640502 -0.38730901 0.224011
0.080662698 -0.38540301 0.22593801
0.081766099 -0.39026099 0.218164
0.080918401 -0.38908699 0.22162201
-0.12874401 -0.083459198 0.212771
-0.12917399 -0.097210601 0.206388
-0.12798899 -0.097882196 0.21426
-0.12726399 -0.115057 0.21363001
-0.12637299 -0.097798899 0.221279
-0.12900101 -0.096539102 0.195908
-0.12780701 -0.082421899 0.189538
-0.12723801 -0.095412597 0.184008
-0.124293 -0.094460301 0.173108
-0.126242 -0.111785 0.17807899
-0.117306 -0.117942 0.229002
-0.11367 -0.102774 0.237312
-0.122102 -0.098605603 0.228845
-0.12622 -0.081062697 0.228772
-0.107322 -0.100893 0.162113
-0.113612 -0.112297 0.16332
-0.11416 -0.094848298 0.162615
-0.119291 -0.089888103 0.166026
-0.113626 -0.081101 0.161558
-0.059271399 -0.107852 0.192637
-0.064277902 -0.109282 0.185544
-0.070428602 -0.121661 0.18238699
-0.068637103 -0.106748 0.17921899
-0.088095702 -0.090766601 0.163112
-0.098101698 -0.096069202 0.162127
-0.103055 -0.114476 0.16407201
-0.057666 -0.116301 0.20494799
-0.062200598 -0.125989 0.197056
-0.058864601 -0.113719 0.198184
-0.074699998 -0.103608 0.17371
-0.084503099 -0.117887 0.171672
-0.081425898 -0.099059097 0.168378
-0.107157 -0.084502302 0.249788
-0.117281 -0.073799603 0.24281099
-0.110312 -0.091539003 0.24387001
-0.101563 -0.106592 0.245277
-0.094548002 -0.131385 0.24178299
-0.082925297 -0.123254 0.244744
-0.092236698 -0.118131 0.24680001
-0.089912802 -0.10793 0.25083899
-0.070805103 -0.114866 0.243881
-0.0736048 -0.125562 0.239243
-0.075149097 -0.13748001 0.235741
-0.067193598 -0.128465 0.23098201
-0.0593298 -0.121065 0.21944501
-0.0587386 -0.112816 0.22940999
-0.061705802 -0.123104 0.22572701
-0.064547598 -0.135185 0.224466
-0.060540799 -0.131237 0.212311
-0.0574072 -0.11889 0.212246
-0.12954301 -0.113309 0.198553
-0.121739 -0.0806612 0.169282
-0.104459 -0.073592998 0.26225001
-0.11146 -0.065011598 0.25679299
-0.105153 -0.079698101 0.255885
-0.097194202 -0.091882497 0.25552499
-0.125294 -0.032521699 0.176153
-0.12760299 -0.020542501 0.18473101
-0.12917 -0.019428501 0.19487301
-0.124732 -0.0438389 0.177029
-0.121048 -0.044167001 0.169036
-0.117091 -0.056141999 0.164015
-0.127895 -0.0660474 0.227541
-0.12894399 -0.053013101 0.22349399
-0.128683 -0.068429299 0.21830601
-0.128821 -0.069900498 0.207101
-0.114153 -0.0683567 0.16173699
-0.118797 -0.067882702 0.166728
-0.128961 -0.0313612 0.195834
-0.129464 -0.0180277 0.20501199
-0.129197 -0.016590299 0.21459199
-0.124657 -0.055938199 0.178387
-0.127104 -0.043856699 0.18639401
-0.128406 -0.0439253 0.197028
-0.125765 -0.068834297 0.182458
-0.122498 -0.067942001 0.173116
-0.12887201 -0.029226599 0.216242
-0.129039 -0.0146142 0.223399
-0.12943 -0.012108 0.232462
-0.12855899 -0.0567871 0.200813
-0.128593 -0.043193098 0.20800599
-0.128976 -0.041147701 0.21897601
-0.128169 -0.0696088 0.194672
-0.12998199 -0.0235635 0.235521
-0.130082 -0.0091638202 0.240969
-0.12987299 -0.0068208901 0.248974
-0.12891801 -0.034002099 0.240018
-0.12958699 -0.037849799 0.229344
-0.124921 -0.067066804 0.235753
-0.127836 -0.018672099 0.25299901
-0.128621 -0.0051869201 0.25589499
-0.12653901 -0.0040689502 0.26205301
-0.124664 -0.044093698 0.246058
-0.126837 -0.031321399 0.249428
-0.123853 -0.029484401 0.25707501
-0.121053 -0.00078149699 0.273871
-0.124299 -0.00246014 0.26772299
-0.123213 -0.016670199 0.26493499
-0.118589 -0.027253 0.268363
-0.121478 -0.028450301 0.26273799
-0.118992 -0.0393252 0.26065999
-0.116265 -0.0138911 0.27746901
-0.117545 0.000586621 0.28093901
-0.111656 0.0025331101 0.29063201
-0.088894203 -0.092689797 0.261558
-0.080036603 -0.086074397 0.26889199
-0.0890515 -0.082887903 0.269573
-0.091101199 -0.069466203 0.27850801
-0.096768603 -0.076039098 0.26974401
-0.088679902 -0.100648 0.25530401
-0.0787393 -0.104761 0.25350299
-0.067977399 -0.0992155 0.25680199
-0.069228999 -0.088549197 0.26632801
-0.0706027 -0.074956 0.27780399
-0.061345901 -0.108182 0.239742
-0.068425298 -0.106887 0.24891999
-0.1024 -0.0100578 0.29751199
-0.082736902 -0.040922001 0.29754201
-0.0839215 -0.024674101 0.30564201
-0.092497803 -0.019068001 0.30317199
-0.101969 -0.024305301 0.29226899
-0.10955 -0.025545901 0.282462
-0.103445 -0.035094 0.286266
-0.070373602 -0.060017399 0.28832999
-0.078324199 -0.053080399 0.29179001
-0.087185599 -0.056003202 0.288003
-0.094681099 -0.056473501 0.28451201
-0.1013 -0.056872498 0.27846301
-0.100342 -0.0466328 0.284931
-0.107524 -0.055202 0.27061999
-0.102967 -0.066958003 0.26981401
-0.112919 -0.0352761 0.27335301
-0.114825 -0.026004801 0.27495101
-0.11849 -0.054446202 0.25162601
-0.122116 -0.058456302 0.24357501
-0.115912 -0.051584601 0.258459
-0.113684 -0.048209898 0.264651
-0.110575 -0.045111399 0.271752
-0.106287 -0.040932301 0.28003401
-0.078042798 -0.26555401 0.198163
-0.0812876 -0.273783 0.192682
-0.081808999 -0.26545799 0.19163901
-0.087497599 -0.26305401 0.186961
-0.083122 -0.254471 0.189132
-0.077562504 -0.26761299 0.21424501
-0.0793951 -0.25671399 0.217288
-0.079725802 -0.26916 0.21982101
-0.084196299 -0.271615 0.223575
-0.079558499 -0.279232 0.222111
-0.090533599 -0.227433 0.17929199
-0.086288899 -0.242118 0.185067
-0.092514299 -0.242892 0.181218
-0.0932514 -0.25563601 0.18266501
-0.099857002 -0.24356601 0.179207
-0.079920404 -0.225353 0.18823101
-0.0776527 -0.23581199 0.195033
-0.081058197 -0.241107 0.189502
-0.0966703 -0.27404299 0.1807
-0.101416 -0.266875 0.180281
-0.094112404 -0.26635301 0.18288501
-0.106907 -0.229064 0.17659301
-0.107384 -0.244404 0.178983
-0.107952 -0.25710601 0.17992499
-0.114329 -0.245464 0.18080901
-0.10831 -0.26780099 0.179233
-0.110113 -0.27555299 0.17782
-0.114315 -0.26946101 0.180712
-0.120272 -0.230783 0.181655
-0.120174 -0.246977 0.18350001
-0.119904 -0.26040101 0.18409701
-0.124208 -0.253032 0.188511
-0.119357 -0.27138099 0.183385
-0.118598 -0.27860501 0.181924
-0.123112 -0.27283999 0.18800899
-0.128005 -0.24218599 0.199871
-0.127766 -0.23092499 0.191954
-0.12732901 -0.24821199 0.193712
-0.12598 -0.26250899 0.192321
-0.12726299 -0.28310201 0.19468901
-0.127424 -0.275123 0.20040999
-0.126228 -0.27407899 0.19400699
-0.127463 -0.22962999 0.204588
-0.12625299 -0.24744201 0.20652699
-0.126238 -0.26323 0.206797
-0.122438 -0.253714 0.212511
-0.127002 -0.28636101 0.20742799
-0.124478 -0.28062499 0.21210399
-0.126938 -0.276402 0.206604
-0.111241 -0.247934 0.22321901
-0.117001 -0.229829 0.218291
-0.11749 -0.248285 0.218335
-0.118652 -0.26492 0.21799999
-0.113838 -0.27853501 0.22221
-0.120184 -0.27809101 0.217522
-0.121505 -0.28789899 0.216205
-0.097348899 -0.245857 0.22681201
-0.104104 -0.228866 0.226438
-0.104582 -0.247271 0.226585
-0.10514 -0.264732 0.226559
-0.107668 -0.288542 0.224314
-0.106333 -0.27854201 0.22597
-0.098371498 -0.27731699 0.22745501
-0.082793199 -0.242731 0.219859
-0.087970696 -0.227164 0.224039
-0.089383997 -0.244239 0.224335
-0.090309799 -0.26081201 0.225475
-0.090764202 -0.27484 0.226455
-0.0912119 -0.285254 0.22667199
-0.076950699 -0.241248 0.21007501
-0.0771247 -0.226055 0.214559
-0.0785468 -0.242172 0.21550301
-0.076704003 -0.25450501 0.204322
-0.076369703 -0.24051601 0.20284601
-0.075028598 -0.22491799 0.20145901
-0.0757557 -0.27500001 0.208959
-0.076449797 -0.26640099 0.206569
-0.0934764 -0.211225 0.17491201
-0.087821603 -0.210401 0.177802
-0.08439 -0.191863 0.176705
-0.082600899 -0.20937601 0.18232401
-0.077762403 -0.153791 0.17686801
-0.076644398 -0.171689 0.181016
-0.081134297 -0.172723 0.176167
-0.086456403 -0.17347699 0.17244799
-0.070463203 -0.136308 0.184797
-0.074821502 -0.136383 0.179159
-0.080915302 -0.14195099 0.174042
-0.113623 -0.21311 0.176167
-0.106535 -0.21250799 0.174266
-0.106075 -0.19395 0.171795
-0.0998924 -0.206476 0.173306
-0.101309 -0.154383 0.168346
-0.098588899 -0.174198 0.169982
